ply
format ascii 1.0
comment Generated by the CGAL library
element vertex 1911
property double x
property double y
property double z
element face 0
property list uchar int vertex_indices
end_header
-54.8832 60.1647 -40.0288
0.791118 -4.52538 44.6192
11.0383 86.3873 10.9015
-16.1196 28.912 26.8102
-12.5321 48.7377 35.8734
-62.8241 61.1802 -40.6692
-9.1683 81.0324 28.9402
34.8932 -7.57822 7.42007
7.39044 60.7716 -40.3394
-6.59268 61.3846 -40.7205
-20.7764 37.4688 17.2697
-23.1034 -47.9003 19.7583
-13.2544 86.8949 11.0757
9.7317 86.6381 11.1553
13.5578 29.3897 27.4025
6.15782 61.6675 -40.4057
-62.8733 62.5221 -40.635
-54.2535 62.7699 -40.6234
-5.63646 62.1927 -40.6409
-8.78638 80.9349 29.6006
-4.32949 62.5671 -40.4972
30.5629 -47.6559 19.6881
7.98942 80.7257 29.7023
-38.2644 -47.12 20.2011
10.1953 86.4281 10.9097
10.6378 86.5667 9.92916
3.2953 63.1043 -40.1726
-23.6402 -46.6864 19.7232
-21.1177 -8.43366 7.577
-19.6165 -6.81504 7.61951
-53.7544 63.5589 -40.091
-8.32435 81.6016 29.6259
2.56228 63.7528 -40.4855
-12.294 87.4757 9.89676
-1.38187 63.9134 -40.7182
-0.558018 64.1603 -40.0766
-1.02755 68.11 37.7291
1.30597 64.0982 -40.6599
-23.8644 7.81749 25.804
-62.6145 64.5732 -40.5689
16.62 71.5903 29.1893
-62.6846 65.5478 -40.5896
-12.1026 87.6004 10.5333
-62.5736 66.4786 -40.0679
14.4611 -47.222 19.3083
-53.242 67.5165 -40.8885
-52.9554 67.9638 -40.5671
8.98759 87.7822 10.6908
-14.1078 18.906 26.6993
-52.2868 68.762 -40.3039
-11.575 87.7054 10.8522
30.2304 -46.5919 19.5569
-10.8193 87.7939 10.3546
-38.1431 -46.6987 20.3114
-62.0247 69.2753 -40.387
7.59474 81.1651 29.6338
-61.3182 70.1184 -40.3378
-51.9487 70.0591 -40.1749
-10.4036 87.9111 10.6322
0.474767 68.1293 37.5896
-52.2743 72.2905 -40.5073
14.3704 -46.2353 19.8771
-51.9926 72.8098 -40.3785
8.50086 88.1498 10.0523
-5.73641 -4.36643 45.75
-10.0396 88.5406 10.6975
-51.5558 73.3458 -40.4697
-60.4451 74.1314 -40.6983
-51.1439 74.0236 -40.5898
57.9408 73.1417 -39.9288
60.9866 73.7238 -40.2426
7.47102 88.6507 10.5076
-21.1045 45.1952 28.5396
-38.4844 -45.9342 19.8581
-60.1062 74.7305 -40.4806
-14.7792 29.3384 28.223
-24.0122 -46.0342 20.2647
-40.6815 -6.30755 7.27585
-50.8931 74.8343 -40.5847
-9.4248 88.9863 10.4457
-59.6564 75.0894 -40.2255
-20.4633 7.66033 25.7093
-29.4454 -52.6819 10.0251
57.6456 75.4183 -40.5664
6.61699 88.9896 10.5554
-59.1704 75.404 -40.3811
-58.8705 75.5475 -40.5682
-27.5818 62.1677 24.2264
1.25124 67.9929 37.5616
60.8854 75.6678 -40.1821
-58.4585 75.8542 -40.6966
6.59455 81.8358 29.3741
-58.2251 77.1662 -40.6545
58.1875 76.8647 -40.5732
57.9002 76.7067 -40.7155
-9.42964 88.9837 11.4365
58.5908 76.8907 -40.4408
59.3308 76.7988 -40.3898
-8.45199 89.3801 10.053
-58.0558 77.9979 -40.7337
-50.9724 78.1721 -40.7356
-57.5631 78.5942 -40.5811
-24.1423 -45.6472 19.1154
4.22228 89.6687 10.0071
-56.4324 79.2487 -40.6686
-50.9257 79.1597 -40.742
6.28929 89.0311 11.242
54.7964 78.8456 -40.2816
55.7661 78.8588 -40.5769
56.4015 78.9635 -40.5085
53.8794 79.5027 -40.4563
56.6007 79.5755 -40.9137
35.078 -6.8807 7.25303
30.1651 -45.7328 19.1
-0.102806 89.5624 10.4203
-51.143 79.7173 -40.6732
7.2328 80.861 30.1126
53.55 79.9878 -40.4242
-7.71892 82.1517 29.4192
17.5684 31.4803 10.1224
-51.2338 80.6893 -40.7784
57.5126 80.113 -40.077
0.314206 89.5523 10.3142
-55.4476 80.4736 -40.1144
53.0493 81.3328 -40.3364
57.2459 80.7575 -40.4352
0.825972 89.7768 10.2112
-54.9667 81.0089 -40.461
-51.8765 80.8036 -40.1333
4.97536 81.8111 29.8003
57.1143 81.2688 -40.452
3.79024 89.5937 11.7088
-54.6097 81.2976 -40.5317
23.037 63.0282 24.9003
-52.1948 81.2635 -40.2862
2.60497 89.9364 10.5878
54.3474 82.6014 -40.6619
53.9245 82.2751 -40.2653
4.9115 89.3984 11.4187
55.5377 82.7295 -39.9649
-2.40923 54.6633 -40.2177
14.8773 -45.2461 19.3598
-15.8334 29.7828 27.0776
29.6842 -44.8109 19.7406
2.01482 54.6662 -40.4708
-6.50337 89.9723 11.6472
2.45899 54.2835 -40.207
2.84879 54.4289 -40.1006
-1.0813 54.8282 -39.871
12.6556 -5.77724 7.3899
1.60513 54.8897 -40.034
-25.0437 -44.9125 20.0365
-6.56073 90.0407 9.76766
-3.53942 55.4796 -40.2872
-4.95919 90.3332 11.208
3.83954 55.3761 -40.3119
4.60003 55.4797 -40.2894
-4.88629 55.7453 -40.2948
-4.39706 55.5631 -40.2872
5.00435 55.9557 -40.6462
5.5126 55.8354 -40.1732
3.2562 67.9636 37.4734
-0.477726 89.8439 10.1392
2.837 82.9746 29.1994
-5.31354 56.6043 -40.3119
5.91802 56.4149 -40.1248
-26.7455 63.962 24.7656
-40.7132 -5.6592 7.26132
-6.10184 57.7899 -40.0175
-60.2191 58.5436 -40.2144
1.18425 89.9579 10.4804
-6.9158 58.5215 -40.0333
-57.7919 58.5961 -40.0403
1.6976 90.0411 10.2881
-18.7655 -5.79441 7.43859
-61.8269 59.4395 -40.0865
-6.04865 -3.60711 46.2622
7.4395 59.6449 -40.3582
-62.323 59.8299 -40.2304
-25.128 -44.3265 19.1752
-62.5489 60.4779 -39.8008
7.79861 60.2802 -39.6845
-62.6908 60.8619 -40.0333
-7.0814 60.9337 -40.3536
19.6136 38.1146 17.9085
14.7891 -44.8184 20.001
-54.1796 61.133 -39.7193
15.1783 -44.3974 19.9334
-7.03427 61.4491 -39.8629
29.3906 -44.4046 19.7555
7.06167 61.3619 -39.8201
-4.45663 90.4615 10.3272
-6.47187 61.883 -40.2025
35.0937 -5.35872 7.10257
-4.82868 82.5899 29.8587
-2.79475 90.6125 10.9105
-1.89711 90.6308 10.0949
-1.43266 90.5575 10.3364
-2.63843 62.8322 -40.1153
-3.54697 83.4135 28.9223
35.2486 -5.5786 7.73088
-62.8139 63.3901 -39.8677
-2.28741 63.2697 -39.8738
-0.950375 90.3033 10.7035
32.2337 -53.922 10.5962
-29.7381 -50.1052 25.768
16.6605 -43.1176 17.6115
-1.49026 57.1033 39.4104
33.1765 -53.9443 11.1071
2.43453 63.9202 -39.427
15.5157 -43.9038 19.4359
0.580878 64.2259 -39.9033
29.0636 -43.9376 19.274
-53.1302 64.5677 -39.9283
-52.6744 65.5471 -39.6664
28.6378 -44.1496 19.9705
-52.8445 66.3888 -40.2675
18.4334 -52.5546 9.82533
-52.9265 67.4911 -40.2015
-62.6087 68.264 -40.3156
-37.6043 -43.7745 19.5808
34.6028 -53.9712 11.3028
-62.4167 68.8212 -40.2872
-61.5738 69.6755 -40.166
-14.7449 30.4849 27.9507
15.5096 -43.6359 19.7497
35.3882 -53.9947 10.9407
-52.0076 70.699 -40.3098
-61.2032 72.1193 -40.1691
36.0738 -53.8618 11.286
58.6677 72.2628 -39.8738
59.4531 71.9922 -39.7727
-15.3736 30.7163 27.3236
28.5101 -43.7602 19.9286
-49.3706 -53.3936 11.3488
-60.9994 72.9963 -39.521
-60.8501 73.2979 -40.2839
-48.9951 -53.6499 11.3654
-48.5647 -53.7135 10.8834
60.3341 73.0402 -40.5521
-47.9146 -53.6467 10.9938
-37.3266 -43.0838 19.7621
-25.2258 -43.4286 19.3205
-46.8289 -53.5628 11.602
15.5216 -42.8683 19.8814
12.9663 30.6802 27.6794
57.7474 73.6057 -39.8967
-15.2628 8.07002 25.8748
-60.4375 74.3229 -40.3131
61.2239 74.5414 -40.0601
-14.5034 46.6627 35.1872
-50.6703 75.4955 -40.0858
-17.904 -4.63328 7.12759
57.6708 75.397 -39.9651
-58.4826 76.1111 -40.2872
28.5226 -43.4138 20.1561
60.6152 76.0752 -40.1223
28.7847 -42.4425 19.4447
-58.4543 76.9247 -40.2948
-50.5824 76.5789 -40.2927
25.3598 -11.778 19.337
57.9038 76.1761 -40.0603
-31.9833 -53.2669 11.6336
-25.3149 -41.6859 19.7807
60.1292 76.4851 -40.0019
-58.2544 77.5359 -40.2842
-2.70249 82.6969 30.0647
-30.8832 -53.5264 11.4831
-50.907 77.8804 -40.2985
-57.8976 78.4441 -40.0737
-51.0317 78.68 -40.2562
55.6535 78.4903 -39.9693
-56.8718 79.1278 -40.2602
0.203016 82.6372 29.959
15.7812 -41.3312 19.2753
-30.827 -53.5587 10.6861
29.0143 -41.5066 19.9704
-3.79673 68.4673 37.4328
-37.365 -41.7349 19.7852
-29.9859 -53.4622 10.952
-56.2841 79.607 -40.2872
-14.8176 8.2334 25.7728
-55.872 80.0213 -39.9152
28.2027 -43.0844 17.0958
38.5595 -52.3123 10.356
-14.0536 7.04887 25.1501
18.796 -53.3825 11.2294
19.1842 -53.4997 10.9476
19.631 -53.5033 11.7538
0.64293 82.9827 29.3454
20.02 -53.4482 11.7579
35.0028 -4.48767 7.63199
-40.8695 -4.33638 7.03733
-6.24443 7.41374 25.392
-53.6966 81.468 -40.1762
-53.2751 81.5488 -40.2073
30.2513 -53.4664 10.7182
22.9873 63.7838 24.9868
-36.371 -1.60076 17.637
-25.2666 -40.9228 19.862
56.6469 82.1036 -40.2146
15.1908 -40.9496 20.192
32.2269 -53.8003 11.6199
56.2519 82.5034 -40.0597
11.4998 -3.63289 7.26932
-1.75923 48.1397 36.3369
-1.85376 54.5614 -39.6669
29.0951 -41.001 19.5823
2.05441 54.4816 -39.8328
37.0016 -53.5706 11.3525
-2.93846 54.98 -39.7614
1.20015 54.8608 -39.5289
3.75049 55.0123 -39.8584
4.08364 54.8493 -39.6427
-21.2394 38.6483 18.4059
0.936817 48.1487 36.0648
-37.6636 -39.7693 19.3096
5.09503 54.7033 -39.4907
-4.42194 55.365 -39.8513
0.77778 2.18463 28.5361
-3.53238 55.1105 -39.585
1.41783 82.6138 29.7171
-49.5892 -52.9911 11.4512
-4.89279 55.8032 -39.8354
5.69814 55.9567 -39.8584
4.51924 7.06374 25.1449
-22.5942 21.9319 18.6931
-5.30491 56.6968 -39.7629
-5.53639 57.2699 -39.4807
-20.1985 31.5472 9.64865
-16.9646 -4.02094 7.65374
6.93223 57.7156 -39.8232
15.027 -40.4901 19.5355
-6.54115 58.0563 -39.8584
-24.234 -42.3402 17.5454
-21.1741 37.8743 16.9325
-59.8337 58.4842 -39.8992
-59.1415 58.5205 -39.6361
29.9606 -39.8923 20.0859
2.16028 82.5298 29.6485
-60.6041 58.8578 -39.6822
-57.3613 58.7112 -39.6583
-45.0235 -53.0616 11.48
-7.19978 58.9862 -39.6478
7.4367 58.8504 -39.8283
34.8505 -4.11619 7.00598
-55.2953 59.565 -39.1988
7.83122 59.4956 -39.43
6.79981 50.3913 37.2337
-7.44915 59.8862 -39.4207
-40.987 -3.66075 7.80752
22.8887 64.4875 24.8103
-19.864 32.4491 9.885
3.20731 14.3483 28.8021
7.66916 60.677 -39.7824
-24.6491 -39.7897 19.7481
14.5328 -39.9846 19.3458
-17.4867 -3.58138 5.72266
-34.667 -52.9576 11.3969
-62.7587 61.6049 -39.742
13.413 31.174 27.0359
-13.7746 46.5211 35.3132
-53.7827 62.4055 -39.6868
-2.40809 83.063 29.5579
27.6067 -33.412 27.0653
27.898 -42.6601 16.9896
-0.941262 82.6453 30.1345
-62.8291 62.6558 -39.8941
-5.96306 62.4062 -39.3923
-33.4159 -53.0668 10.9539
-40.8532 -3.22922 7.7124
4.37216 62.4825 -39.4351
5.58092 62.0552 -39.5795
-4.23676 62.9149 -39.4546
14.2241 -39.605 20.0404
-0.668399 82.8582 29.9137
-26.3434 64.7361 24.833
3.65214 62.8003 -39.8289
16.3055 -53.367 30.0903
-0.597844 -6.20924 41.0068
-29.5077 -53.2922 10.9498
4.33907 7.41438 25.8603
18.3116 -53.0478 11.0523
17.8373 32.3185 10.0819
29.8539 -39.5299 19.3272
-62.6389 64.403 -39.8419
-1.42313 64.0645 -39.4304
-37.1508 -39.2457 19.7116
8.66279 7.62892 25.334
-0.031411 64.3615 -39.4566
-24.4534 -39.0009 19.724
-62.5955 65.1352 -39.5533
21.1993 -53.1739 11.845
-52.4564 66.5065 -39.3554
-62.6635 67.701 -39.8514
-52.3312 68.1524 -39.8008
-62.5301 68.3568 -39.6568
22.4928 -53.0055 11.9422
-62.2544 68.897 -39.6564
34.9838 -3.50737 7.02035
-51.9513 68.9227 -39.468
-61.616 69.6179 -39.4416
17.1719 -53.507 29.8899
-61.3934 70.1457 -39.6702
-51.8658 70.4543 -39.4996
-61.3128 71.2112 -39.6627
-52.0725 71.0404 -39.7801
-52.1844 71.8229 -39.8584
-32.2988 14.3098 10.3528
-40.4388 -2.28913 7.37616
60.0973 71.9285 -39.4527
26.418 -29.5176 27.4272
24.3067 -53.0069 11.6482
-51.8994 72.2781 -39.5718
-39.6872 -41.8283 17.0244
-15.6672 -2.82905 8.05608
26.4528 -53.0889 11.8453
-51.5347 72.9326 -39.8133
61.0249 73.0942 -39.7564
-60.939 73.4715 -39.7617
-15.1171 31.5441 27.3406
13.8284 -38.0644 19.8557
-60.9626 74.0585 -39.5163
30.279 -38.6688 20.1621
-50.9872 73.7336 -39.6419
57.5642 74.2174 -39.4776
28.7791 -53.2097 11.434
-60.9596 74.4692 -39.2007
-37.1746 -38.6306 20.0033
-2.95332 68.4536 37.6132
-50.6298 74.7929 -39.7677
-59.4991 75.1209 -39.9102
18.3088 -53.4295 30.2756
29.7071 -53.2931 11.5805
-50.5052 75.2608 -39.6401
38.0544 -53.0582 11.1575
-58.8734 75.5494 -39.5635
-24.2761 -41.8563 16.9246
35.0859 -2.81612 7.12815
58.0242 75.8244 -38.9995
-58.6589 76.1457 -39.4904
-58.6412 76.5469 -39.7437
-50.3688 76.8133 -39.8544
58.2336 76.331 -39.4911
-3.19781 46.4797 35.172
19.5374 -53.3297 30.359
-58.5837 77.0287 -39.821
58.6891 76.6196 -39.5929
59.4914 76.6358 -39.4317
21.2541 -41.8671 29.2884
-37.2598 -37.7561 20.6374
-50.6615 77.4877 -39.9838
-58.1446 77.8527 -39.8156
6.34295 50.4341 37.4462
-57.8295 78.6101 -39.5394
-24.5399 -38.2155 19.8803
-50.975 78.2554 -39.858
-49.8433 -52.344 10.9957
55.342 78.2966 -39.452
56.6812 78.724 -39.8822
-57.3423 79.2098 -39.4873
30.6615 -37.4941 19.3926
-42.0728 -52.9687 12.095
54.548 78.8181 -39.6187
57.1257 79.1137 -39.9561
-56.6284 79.5218 -39.6293
57.6706 79.295 -39.4921
-56.3255 79.6911 -39.5338
-38.5115 -37.7633 19.4571
-51.5661 80.2284 -40.0996
13.4257 31.5587 27.222
53.6985 80.1008 -39.7678
-24.5325 -37.1751 19.459
10.6965 -2.25417 7.01575
-39.4931 -52.8207 11.5698
-55.0369 80.5328 -39.6593
-38.6844 -36.8399 19.8515
-38.6624 -52.8122 11.2671
53.0274 81.4889 -39.9329
57.7751 80.8199 -39.5864
-54.3551 81.0429 -39.9193
13.4166 -36.9269 20.188
-52.8655 81.0886 -39.8399
-37.0151 -52.7592 11.8265
24.6408 71.0228 6.55482
57.246 81.6947 -39.7346
53.2976 81.8434 -39.5785
53.5544 81.9808 -39.5969
-35.3569 -52.8458 11.8539
55.4582 82.7009 -39.589
56.1193 82.6645 -39.3025
49.8072 86.8256 -39.8523
48.7766 87.1496 -39.8579
49.2052 86.8868 -39.8584
49.2052 87.2604 -40.1542
49.634 87.2604 -40.1258
-28.2614 -52.5167 11.3037
50.6521 87.2559 -39.639
48.8098 87.6979 -40.0889
48.5238 87.579 -39.6759
49.2054 87.689 -40.2341
49.6404 87.7128 -40.1325
9.52301 8.1776 25.7494
18.0614 -52.5421 11.2832
38.4798 -52.9573 10.7616
49.1999 88.1146 -40.1023
49.6669 88.1179 -40.0067
-24.7164 -36.7002 19.7103
48.767 88.2039 -39.8184
-0.102818 2.24567 40.5327
-40.5453 -1.2098 7.28622
-1.14718 54.6545 -39.2937
14.9082 -53.1093 29.5592
-0.508964 54.604 -39.1899
-0.105186 54.5398 -39.3436
-15.4397 -1.71039 6.7168
0.341188 54.599 -39.3464
1.61662 54.6315 -39.2721
2.45546 54.3841 -39.2859
2.90932 54.5379 -39.403
15.7613 -53.1786 30.3345
3.33837 54.6702 -39.4296
11.0391 7.68714 25.6846
4.60812 54.6702 -39.5283
13.4966 -36.8864 19.5852
30.953 -36.418 19.4765
20.2911 -53.2685 30.1638
21.1245 -53.2795 29.6737
-28.0989 -52.1061 11.1237
-2.95727 54.9039 -39.456
-39.1665 -35.5059 19.5213
37.8802 -52.1236 11.2095
0.731232 54.6603 -38.7312
-38.585 -36.1692 20.1949
5.50563 55.214 -39.4229
-4.64593 55.6608 -39.4961
15.0028 -52.5862 30.868
5.85222 56.2645 -39.4547
-4.9684 56.3855 -39.4296
28.0767 -42.2551 17.4129
21.6218 -52.9161 29.7162
-49.9006 -51.5671 11.2502
6.18561 56.9227 -39.1002
-5.25469 56.8156 -39.4296
10.2882 -1.43581 6.97739
6.75221 57.3689 -39.4296
-6.53256 58.0341 -39.1196
13.2672 -35.9641 20.0151
-22.2693 39.5766 17.3767
7.15079 57.7118 -39.1008
-27.888 -51.5555 11.0942
18.0264 -51.3078 11.497
-58.5773 58.5976 -39.2605
-7.01382 58.4971 -39.1295
-60.0157 58.7485 -39.3469
22.7675 65.6346 24.5062
37.6758 -51.1049 11.5503
-57.7482 58.6295 -39.464
-56.4066 58.9387 -39.1023
-61.126 59.3245 -39.3406
18.2469 -51.5609 10.7864
-61.8587 59.7268 -39.4296
38.8089 -51.3706 10.0373
31.239 -35.8309 19.342
-50.0481 -50.106 11.171
13.9254 -52.0748 30.1611
-7.43095 60.6296 -39.6271
-2.30193 46.956 35.1941
-54.4528 60.4205 -39.2588
-27.825 -50.9693 11.023
-7.36448 61.2201 -39.1876
7.5855 61.0754 -39.1694
-24.2089 -35.2161 19.6579
-53.6244 61.7325 -38.8951
34.8684 -1.12565 7.44012
-62.8026 62.083 -39.292
-6.9734 61.994 -38.8183
21.0516 -52.0551 30.3149
6.89088 61.6002 -39.244
31.5882 -35.2145 19.3548
-25.8598 66.4145 24.5604
-25.814 65.7544 24.8926
-38.682 -34.6883 20.0551
-63.0039 63.169 -39.0404
-4.84378 62.9718 -38.8789
13.1715 -35.1976 19.5372
-14.2128 -0.773792 7.76968
-3.10076 63.0051 -39.3893
-2.63855 63.4005 -38.6554
9.62885 -0.681841 7.29755
3.32361 63.2686 -38.8798
-2.25948 63.5884 -38.9562
-1.99507 63.6754 -39.4296
2.95657 63.674 -39.0135
-62.7108 64.7607 -39.1002
-39.2946 -34.3059 19.2643
17.9312 -50.3786 10.8048
2.00677 64.0566 -39.2421
12.9466 -34.5702 19.5543
-52.7812 64.0455 -38.8583
-0.676115 64.314 -39.4022
0.897191 64.2645 -39.416
13.0856 7.76449 25.5107
-62.3603 66.8078 -38.7978
-62.3834 67.0438 -39.0379
-62.5436 67.7945 -39.4553
31.7604 -34.1083 19.8796
22.1425 -50.9309 29.5436
-0.960615 57.0026 39.2827
-52.0874 68.135 -39.2315
16.4957 -41.9514 17.9227
-24.2502 -33.7283 19.649
21.3756 -51.0809 30.1359
13.2789 -50.8168 29.8739
-51.7664 69.9776 -39.1999
12.856 -34.142 20.0405
-28.9929 -52.3701 10.3759
-61.2213 71.9157 -39.1268
-52.0484 71.8032 -39.4125
59.0534 71.7531 -39.3455
13.1653 -50.2068 29.5246
34.5937 -0.195174 7.07865
-61.0074 72.6917 -39.3308
-40.4249 0.139785 7.32956
22.0194 -50.0304 29.561
58.1713 72.0217 -38.9897
-27.8471 -49.7553 10.9936
60.8027 72.3572 -39.2951
17.8845 -49.8026 10.7769
57.7147 72.8781 -39.198
13.5102 -49.9614 30.039
38.2226 -50.1748 10.4841
61.5788 73.703 -39.0649
19.8843 38.8273 18.221
31.8591 -33.5834 19.3936
17.8057 33.2273 10.1193
-60.6145 74.8541 -39.074
-60.1434 74.8247 -39.7913
61.5372 74.6908 -39.0668
-59.3936 75.2094 -39.4394
-27.2763 -49.5787 11.8627
57.6422 75.0509 -39.2199
61.2692 75.2473 -39.526
-20.4245 44.9163 29.115
-50.4323 76.0061 -39.3507
61.3 75.4202 -39.0129
60.7407 76.0932 -39.2697
-24.2135 -33.1075 19.6015
-5.93645 -2.33794 45.8182
59.899 76.5182 -39.2662
-58.5768 76.9626 -39.1035
21.2719 -49.1813 30.0371
-50.2718 76.9526 -39.4071
-49.9282 -49.0393 11.1662
59.0819 76.4654 -39.0228
-27.0593 -49.0483 11.8915
17.9112 -49.4443 11.1106
32.1269 -32.9926 19.8236
-39.7723 -32.6074 19.3539
-50.7094 77.8992 -39.4296
17.871 33.6904 9.89978
-26.9104 -9.94965 17.5423
56.2601 78.0188 -39.0379
-24.1911 -32.3219 19.6202
-51.5622 78.6921 -39.1194
13.582 -49.159 30.1043
-24.4619 8.12946 25.9287
20.4404 39.3045 17.2582
56.6853 78.0701 -38.9371
-27.1649 -48.4643 11.5981
-15.1948 32.4084 27.6605
54.3758 78.9562 -39.1624
18.4313 -47.9982 11.6002
36.4368 -48.7313 11.5018
1.00863 -2.14248 45.5467
-51.7846 79.1771 -39.0801
53.9222 79.5417 -39.7825
-49.4699 -48.0206 11.2662
-55.5538 80.0033 -39.2366
-27.9341 -48.412 10.5686
54.0339 79.6514 -38.9324
2.289 -2.82321 40.0082
20.49 39.4181 17.7038
13.7754 -48.1692 29.7044
57.8337 80.4045 -39.5987
21.1331 -48.1886 29.8946
-53.4627 80.7514 -39.3668
-13.5298 -0.087828 7.83636
-8.10789 49.0955 37.662
18.3696 -52.2066 9.95614
36.1151 -48.2447 11.3967
-38.7 61.2719 6.36831
-14.7794 32.1173 27.8236
58.0163 81.2495 -38.7279
12.7272 -32.5364 19.2046
12.8688 -31.8934 19.9594
-12.0459 48.7542 36.0052
54.117 81.959 -38.4159
32.4784 -32.2203 19.7207
56.9177 82.2218 -39.241
20.8904 39.5549 17.5317
54.5217 82.2347 -39.1864
-39.2778 -31.6239 19.7169
-2.21707 44.6446 34.9383
50.2903 86.3939 -39.4404
12.8261 -31.4884 19.6931
49.3743 86.5652 -39.4648
50.6004 86.8444 -39.6122
48.798 86.944 -39.3527
-27.7305 -47.7758 10.6899
8.56258 0.500381 7.84876
34.4468 0.212684 7.52945
50.813 87.6857 -39.4717
-24.1509 -31.395 19.6008
48.5512 87.9877 -39.3345
18.5656 -47.5731 11.4016
-14.32 -0.043826 6.47199
48.7711 88.4526 -39.3315
49.1557 88.6162 -39.5789
49.7437 88.5188 -39.5562
13.7044 32.4053 27.6962
50.4917 88.1671 -39.4296
14.3094 -47.2744 29.8737
-26.2668 -10.0813 17.2139
4.17931 54.241 -39.0008
27.9337 -41.826 16.9988
4.60812 54.2414 -39.0437
-39.2654 -31.0394 19.9169
-2.43551 54.6735 -38.7879
-28.3656 70.9828 6.79093
35.8428 -47.9414 11.297
-49.0309 -47.6632 11.7365
2.04821 54.3417 -38.5493
3.73882 54.4616 -39.0368
5.03694 54.5655 -39.0008
-27.6074 -47.2077 10.5987
-3.96824 55.099 -39.399
12.7266 -31.0962 19.719
-3.21679 54.7422 -38.7345
-27.1175 -47.7268 11.5071
8.80859 1.0934 6.63828
-4.37359 55.8004 -38.9489
-3.94093 55.1562 -38.9374
5.46576 55.3058 -39.0008
-50.0305 -51.1887 10.3243
18.708 -48.1656 10.6235
5.7207 56.2251 -38.9629
-4.82995 56.3855 -39.0008
34.5064 1.23375 7.16068
32.4816 -30.8677 19.782
-5.25469 56.7485 -39.0008
21.4565 39.6434 17.0917
-0.110274 48.6253 35.6745
35.0449 -47.3813 11.1721
-5.58743 56.9652 -38.9648
-6.11233 57.6719 -39.1293
35.483 -47.6605 11.171
-22.0543 22.5649 18.6999
-40.4646 1.00832 6.66596
-48.7372 -46.755 11.1046
7.74548 58.3437 -38.5809
15.4127 -19.6963 19.0581
-0.316248 46.8953 35.1622
-57.4757 58.4534 -38.707
-24.0384 -30.2441 19.7504
-20.3678 8.12635 25.7079
12.7155 -30.627 20.0323
-59.9506 58.9268 -38.7795
-59.3039 58.6218 -38.8264
-27.0494 -46.7872 11.0125
-57.1838 58.4536 -38.4953
0.296301 47.0276 35.1895
-7.35812 58.9691 -38.6956
20.8791 -47.1351 29.9544
-55.4663 59.364 -38.8595
-22.6333 40.2 17.9475
0.319943 48.5035 36.0424
8.05114 59.6422 -38.6797
-39.983 -30.365 19.4754
-12.9896 1.45046 6.74284
-61.4663 59.8023 -38.7749
21.3458 -47.1108 29.6423
-62.2863 60.3404 -39.2402
-61.8972 60.2388 -38.6579
32.6069 -30.2418 19.1065
-39.7952 -29.9448 19.7212
-53.797 60.7812 -38.3544
-7.52011 60.8117 -38.8689
8.05364 60.6322 -38.0684
-62.5825 61.4578 -38.847
33.0031 -47.0687 10.9939
18.5489 45.6422 28.6846
33.7023 -46.9972 11.2839
12.5535 -29.7787 19.1315
32.6797 -29.8422 19.5741
6.02571 61.981 -38.6451
-6.62712 62.3448 -38.6795
34.1984 -46.8205 11.5626
4.86316 62.4492 -38.4593
-52.9797 63.1437 -38.5715
-6.06208 62.5467 -38.8794
-24.1481 -29.1649 19.7118
3.75946 62.8405 -38.6837
4.15156 62.6277 -38.6295
12.6529 -29.2694 19.618
10.25 18.1483 26.8374
-12.6214 1.19229 7.74165
14.8418 -46.7975 30.0305
32.7917 -29.1642 19.6817
-5.68306 -9.66662 54.0597
18.6622 -46.886 11.4548
-39.7064 -28.7942 19.5894
-5.29643 11.5299 29.7023
32.0437 -46.5368 10.8283
9.28191 48.8242 36.1567
32.4647 -46.6438 11.077
-1.37343 64.5216 -38.9308
1.3375 -3.47961 44.1249
-0.232942 64.5933 -39.0676
-47.8246 -46.1552 11.3209
15.3812 -45.9295 29.5765
1.11207 64.4208 -38.9604
-48.1465 -46.0832 10.7287
-52.1431 65.1672 -38.1892
-26.1926 -46.0674 11.8959
14.5295 32.8009 26.9653
22.6038 39.8705 18.4573
8.05061 1.77047 7.29683
-52.2728 67.4384 -39.1185
31.6421 -45.9992 11.3541
-62.2171 68.2088 -38.9674
-3.95225 -9.05104 57.5141
20.4778 -46.2967 30.0237
32.0525 -46.1164 11.171
22.9856 40.1136 17.4253
-61.8958 68.9092 -38.6759
-46.8707 -45.7126 11.4187
-61.5846 69.6322 -38.8917
-61.5294 70.1088 -38.6515
-61.5283 70.9921 -38.9599
-51.8899 70.8515 -39.1025
-39.9124 1.88746 7.0874
-21.9353 22.9447 18.5363
-51.5647 72.0495 -38.9648
58.6184 71.4978 -38.6854
19.3671 -45.9567 10.9098
-6.50814 -9.19143 56.5144
59.4724 71.0824 -38.3115
59.9887 71.0543 -38.1605
-24.3495 -25.8336 19.3886
-40.1112 -28.3406 19.2058
-61.0898 72.2492 -38.6942
-12.3813 1.94524 7.39753
30.7025 -45.2072 11.5641
57.7804 71.9823 -38.3407
-51.1364 72.2569 -38.4176
-24.4742 -28.4522 20.0443
-45.863 -45.4012 11.229
12.6361 -28.0797 19.4909
61.2267 72.3318 -38.6707
28.1931 -34.0951 26.7344
32.9423 -28.0519 19.9558
57.467 73.2209 -38.7616
61.5451 72.9045 -38.6009
-61.186 73.8986 -38.9332
-50.689 73.9998 -38.9369
-39.376 -27.5803 20.0501
57.3412 73.7728 -38.3386
-24.0955 -27.8512 19.3401
0.724319 56.6881 39.2068
-24.5752 -27.5021 20.1365
57.443 74.5928 -38.6588
30.0448 -38.5349 18.9835
-59.6578 75.3098 -38.6255
57.7155 75.2373 -38.6321
-26.7159 -45.2343 11.3372
-58.9558 75.7169 -39.0249
19.5917 -45.0671 11.475
-39.7682 2.42035 6.98221
12.8844 -27.3263 19.3924
-58.7371 76.553 -38.9293
-6.67903 8.30398 26.1677
58.5887 76.1778 -38.9172
16.2998 -45.359 29.5037
16.9363 -45.5982 30.1628
60.3754 76.2873 -38.4814
-50.2779 77.5089 -38.9959
-50.5854 77.9468 -39.0222
18.5668 -45.9984 30.2164
-57.8325 78.0173 -38.5647
-51.1417 78.1699 -39.0116
30.4151 -45.0453 11.0011
33.0631 -27.2183 19.9636
55.2809 77.9478 -38.1072
-40.0505 -27.5624 19.4121
19.5976 -46.0328 30.2446
-57.6306 79.0281 -39.0634
57.6239 78.6558 -38.9911
13.0327 -27.2712 19.8643
23.4332 40.951 17.1286
-44.6952 -44.8347 11.403
4.6051 8.03618 25.7808
7.28983 2.73234 7.50918
-56.8996 79.5912 -38.7885
20.1935 -45.9078 29.9499
-52.0789 79.1697 -38.6435
-23.689 41.412 16.9476
-55.8674 79.8082 -38.9119
-27.5425 -45.2295 10.5438
-39.9996 -26.6559 19.4318
-52.4522 79.6649 -38.7643
-16.4711 33.2372 27.3292
12.9683 -26.3662 19.3869
33.0974 -26.6912 19.6527
-54.6902 79.9657 -38.5463
-54.2233 80.1925 -38.7335
20.2976 -44.8124 11.1787
-52.9366 79.8109 -38.5925
1.57132 46.6026 35.0138
53.7323 80.4258 -39.0413
58.4859 80.1644 -38.4908
1.28334 56.6566 39.3242
-37.8903 61.5746 6.89445
-19.0506 39.5794 24.5368
20.5725 40.1799 24.5308
53.2223 81.459 -39.3374
-23.2232 41.0168 17.6529
17.4455 -45.5886 30.2448
17.8754 -45.487 30.1079
58.0161 81.6426 -37.9016
-11.7286 2.81858 7.16035
23.3894 41.3942 17.4992
21.0481 -44.8733 10.7363
29.8562 -44.8098 11.5015
56.1925 82.622 -38.7338
55.6611 82.5643 -38.561
49.321 86.5129 -39.068
50.242 86.0628 -38.9745
-44.0757 -44.2862 10.5256
16.1593 -33.6131 26.8783
51.0261 86.4016 -39.186
-39.7695 -36.6404 11.15
51.6787 86.6345 -38.924
48.7195 87.2136 -38.9235
51.591 87.2505 -39.0469
51.6183 87.7105 -38.8512
33.2892 -50.1808 6.68849
-27.7022 -44.4568 11.0147
51.2552 88.1139 -38.8197
33.7595 -50.6709 6.55094
-39.7674 3.20041 7.10721
50.6365 88.4863 -38.8452
-4.84435 -9.77802 53.9671
49.2517 88.664 -38.9337
49.8638 88.6948 -39.0271
21.1209 -44.4431 10.9703
3.24444 54.3445 -38.33
4.11158 54.0776 -38.4748
4.60812 54.1601 -38.5719
-1.78117 54.5368 -38.5176
-1.01066 54.5392 -38.149
28.6452 -44.259 11.4197
1.17934 54.6197 -38.461
2.89987 54.3942 -38.5312
-11.6872 54.7081 37.3508
4.90188 54.6702 -38.5719
16.9279 -41.385 17.1744
-24.669 -26.0531 19.7152
-24.1302 41.6446 16.8152
-4.09796 55.6639 -38.4485
5.03694 55.2417 -38.5719
-43.0627 -43.791 11.0332
-40.1629 -25.9277 19.3154
-4.30953 55.9567 -38.5719
-39.6521 -26.185 19.7802
-4.82588 56.3122 -38.5719
23.3066 41.9195 17.4265
5.52835 56.3855 -38.5719
6.80707 3.11993 7.60979
-5.21495 56.4252 -38.5177
-27.4801 -43.954 11.4697
-6.15856 57.2431 -38.5719
33.0259 -25.3408 20.2137
5.89458 56.8954 -38.5719
6.37787 57.1635 -38.4922
-1.18274 44.6258 34.789
-6.33615 57.6719 -38.5719
7.2626 57.655 -38.2956
-12.4362 -1.57741 17.8948
-39.5938 -25.2333 19.8039
-6.59615 58.0014 -38.1563
21.4432 -43.9557 11.1363
-58.7771 58.5157 -38.5827
-25.7053 42.2704 17.5708
33.973 3.53437 7.5573
26.7669 -43.9315 11.0451
-6.97903 58.4228 -38.2971
19.7313 -39.9255 29.5944
-39.683 3.71955 7.19257
20.7995 -39.7367 29.6222
-24.9488 -25.1046 19.8917
6.27034 7.92276 25.4436
-60.6109 59.3956 -38.3742
-21.5227 45.7846 28.1917
14.4989 33.2024 27.0777
13.1735 -25.0655 19.1661
-7.66102 59.5208 -37.8828
27.178 -44.0235 10.996
21.4087 -39.7033 29.678
-54.926 59.5687 -38.1266
27.9359 -44.1057 11.6025
22.029 -39.3008 30.0087
-54.2652 60.1924 -38.345
-7.7135 60.2431 -38.0014
-62.3029 60.903 -38.484
-28.65 -51.521 10.1933
-42.2733 -43.4079 10.667
-42.5121 -43.4095 11.257
-24.5694 -25.0667 19.4971
5.04635 3.22365 7.63974
33.049 -24.7488 19.966
19.2645 -39.2142 30.0144
-24.0868 -41.3159 16.9916
-39.6969 -24.2542 19.8023
-27.9589 -43.5894 10.9818
6.64652 61.8389 -38.0825
-62.969 62.3394 -38.3963
-27.2127 -43.5254 11.6613
-24.4516 -24.1109 19.2973
5.94201 3.31393 7.14029
-25.1708 -24.1728 19.8987
-63.0368 62.9001 -38.3828
13.6196 -24.4503 20.0688
21.9699 -43.4019 11.5225
23.1401 -43.4238 10.7774
-63.0142 63.6078 -38.3789
6.32043 3.30063 7.34352
-25.1654 42.0305 17.5128
24.003 -43.6995 10.7556
-3.16569 63.3878 -38.1466
-16.9675 34.0234 26.7877
25.1657 -43.7985 11.051
-62.9162 64.1816 -38.3171
26.3012 -43.6997 11.2087
-1.82415 64.1042 -38.9777
2.46403 64.1042 -38.8916
2.98809 64.1042 -38.5719
-1.81284 64.7408 -38.598
2.0001 64.5238 -38.7413
-62.5694 65.3842 -38.2308
-6.33821 -6.43915 55.3102
-25.2637 -23.5866 19.8804
-1.23082 65.2785 -38.5439
-0.053458 65.0112 -38.7532
0.812607 65.2157 -38.55
2.31514 65.0112 -38.5208
22.9661 -39.2721 30.0426
23.628 -39.2493 29.7522
18.4684 -38.7618 29.5942
-0.412806 65.403 -38.5772
-52.0118 66.4207 -38.4331
13.5489 -23.6964 19.4111
-62.1758 67.3494 -38.4999
-51.7115 67.6098 -38.1529
-62.0559 68.299 -38.473
-51.5438 68.3091 -38.0689
-51.5393 69.6562 -38.4963
23.1183 42.2327 17.7106
13.6962 34.0972 27.8028
-61.54 71.0399 -38.5979
-51.6193 70.9632 -38.4487
23.7629 -38.8236 29.9425
-11.2583 3.72318 7.33713
22.5379 -43.0924 11.8315
22.6519 66.0951 25.1722
-24.7656 -23.0664 19.5559
-51.4182 71.1442 -38.1667
23.546 -43.2786 11.513
60.4288 71.0386 -37.886
60.7758 71.5746 -38.3173
14.0299 -23.4093 20.0599
-41.2385 -42.739 11.3464
32.8066 -23.6919 20.1534
-5.90719 -1.85583 43.3026
-61.0166 72.6773 -38.6032
57.2813 72.557 -37.8113
-61.2089 73.8331 -38.6054
19.1205 -38.1793 30.0636
-27.984 -42.4434 10.5725
2.85252 4.30699 7.57757
61.841 73.2524 -38.0967
-50.5022 74.0359 -38.4203
61.779 74.2087 -38.2916
-61.074 74.3808 -38.3868
-10.8411 50.7573 37.3405
-40.4941 -42.3074 11.6285
4.04666 3.68285 7.54246
-50.3398 74.9325 -38.2218
13.9403 -22.6806 19.159
61.6393 74.8239 -38.2624
16.4332 -40.9862 17.5176
-59.8385 75.2248 -38.2398
-16.4494 34.4742 27.3871
32.9311 -22.4518 19.7135
23.6325 -38.2963 30.129
-50.331 76.2384 -38.5359
10.4686 8.68042 25.9432
61.2894 75.4627 -38.2981
-39.9804 -42.1711 10.8987
-59.5242 75.6948 -38.1594
-39.5601 -41.8471 11.171
60.8947 75.9007 -37.9158
-27.0206 -41.8487 11.076
-39.5937 -21.7184 19.7538
59.5026 76.3776 -38.3925
59.8957 76.2805 -37.9361
-58.6306 77.0006 -38.6649
-24.5901 -22.3452 19.313
33.7125 4.05496 7.06056
1.53806 68.591 37.6328
14.3708 -22.571 20.0378
-50.5973 77.8119 -38.5293
23.8814 -37.7775 30.0006
56.0996 77.5316 -38.0008
-39.2479 4.63178 7.72047
-51.1382 78.2389 -38.5719
-11.138 4.13583 6.98942
55.646 77.802 -38.2721
0.460049 -1.08547 45.5339
57.3705 78.0789 -38.5307
-39.1854 -41.3448 11.373
-25.8051 -21.9691 19.8105
23.369 42.6085 16.7726
-51.7444 78.684 -38.5719
54.8064 78.2521 -37.8624
-26.4907 -41.3337 11.0734
-57.5117 78.9864 -38.591
54.4092 78.8284 -38.047
-38.8364 -40.9617 11.1834
24.0166 -48.6367 27.6311
-9.6595 4.26051 7.75304
-57.1536 79.4174 -38.3933
-19.2297 80.6286 18.5324
14.2826 -21.9117 19.6052
58.6503 79.3871 -38.171
-55.1685 79.7821 -38.2798
-26.4946 -40.9592 10.59
19.2565 -37.4918 29.9277
-53.5087 79.7086 -38.2234
-24.9829 67.3434 24.8073
-4.57078 -5.5825 41.8603
-38.7691 -40.5784 11.2244
-38.1564 -40.5154 10.6536
38.0649 61.1652 7.01912
-25.9377 -40.2969 10.649
58.5305 80.8433 -37.9486
53.5085 81.7395 -38.6601
55.1311 82.1089 -37.7227
-26.4785 43.0876 17.4644
-38.671 -40.0826 11.0074
56.8666 82.3927 -37.9933
-26.1906 42.6922 17.7726
50.1883 85.8126 -38.4561
50.9545 85.7439 -38.5554
51.6012 85.9751 -38.5608
18.487 24.2794 18.2046
49.545 86.2663 -38.5966
22.341 66.7883 25.2677
49.3721 86.5258 -38.319
28.4071 -41.1817 17.5257
52.3533 86.8105 -38.4199
-39.1146 -39.6467 11.3962
52.2354 87.2769 -38.4352
48.935 87.5774 -38.3859
-25.17 -39.7523 10.9877
48.8941 88.0923 -38.5978
32.651 -21.064 19.7316
21.9816 15.6194 18.2399
49.2504 88.4914 -38.5026
33.2841 4.93654 7.60334
11.9728 8.17321 25.8102
49.938 88.7137 -38.4545
50.6778 88.5887 -38.4146
-24.5681 -39.1075 11.2978
4.30519 54.1965 -38.1339
22.9624 43.1596 17.4884
-35.3185 63.2545 6.7133
-6.24209 13.2207 28.8528
19.1496 -36.5248 29.6855
-2.38942 54.5636 -37.8526
-26.0826 -20.8893 19.4886
-0.049786 54.4145 -37.7879
0.719113 54.5117 -37.5481
4.60812 54.6702 -38.1742
1.18535 2.28028 28.8358
-25.3839 -20.7587 19.1431
-3.16103 54.831 -38.1008
2.50395 68.3881 37.5243
32.5332 -19.8 19.0078
4.72432 55.2327 -38.229
-39.0938 5.01641 6.88996
-35.8195 -0.320174 18.5803
-25.3691 67.3704 24.5327
-9.91638 4.81477 6.61618
-5.67469 56.3316 -38.3831
-39.7582 -38.1062 11.6232
-4.39706 56.0869 -38.1431
5.11914 56.3532 -38.1369
-22.1099 24.3665 18.7714
-6.11233 56.8143 -38.4288
-6.26293 56.874 -38.1585
24.1931 -36.7938 29.9552
5.65562 56.7753 -38.1503
28.2557 -40.7533 16.756
18.4014 -51.4689 9.59543
-39.4429 -39.8775 16.6953
-39.5869 -38.738 11.5495
7.62759 58.0469 -38.3377
-24.1024 -38.2123 11.4479
-39.6457 -37.9195 10.7347
-57.7334 58.3788 -38.0849
-39.5234 -20.5887 19.3969
7.86728 58.5186 -37.9006
-59.882 59.0037 -38.0741
1.27481 5.17915 7.34755
-59.2391 58.696 -38.0492
-14.8563 50.9294 36.1605
-56.1315 58.9117 -37.4579
-55.1915 59.2859 -37.6566
-39.0827 -39.6698 17.3909
-39.7511 -37.1086 11.4022
-23.3986 -37.2032 11.3569
8.14966 59.5434 -37.9058
-61.3451 59.8095 -38.1411
-15.6954 34.9112 28.2105
-61.8427 60.2449 -38.1431
8.16825 60.2466 -37.9764
-6.67942 -9.0628 55.387
15.3154 -20.5637 19.8058
-7.73836 60.8558 -37.9609
13.6389 34.9134 26.8597
-62.6318 61.5153 -37.681
-7.47478 61.5043 -38.4045
20.0161 -36.553 29.8861
7.62311 61.3822 -37.4267
-19.4708 40.8005 28.2682
-7.46658 61.941 -38.0106
-39.3868 -36.6302 10.3527
7.18163 61.6285 -37.8673
-52.9034 62.4584 -37.8958
-6.91946 62.5841 -37.9684
3.61083 68.4873 37.38
5.67205 62.2963 -38.1536
-26.5133 -20.1192 19.5576
-26.5283 43.4976 17.4773
-23.0618 -36.5091 11.397
4.13532 62.8711 -37.9064
4.70148 62.6765 -37.7923
-40.1746 -35.7542 11.0318
-6.02603 63.096 -37.8219
-13.9306 50.4517 36.3792
-8.8346 5.1619 7.05031
-1.05979 -6.13524 53.5399
-4.4789 63.3856 -37.9278
-38.8888 -20.1306 20.0249
-27.909 71.3821 7.10679
-5.34637 63.3455 -37.7685
-23.1392 -40.4952 16.7889
3.45027 63.6681 -38.2737
-2.6631 63.7695 -38.1295
24.6767 -36.2384 10.9843
-1.91355 65.1484 -38.1652
15.5673 -20.0006 20.1439
2.89285 64.533 -38.4831
3.18508 64.8308 -38.1385
-8.23738 5.69994 6.65739
24.8855 -36.6059 29.6994
25.1531 -36.6076 11.221
25.1848 -36.1185 10.8015
25.6895 -36.3612 11.1086
22.1422 67.1663 24.5223
1.79932 65.4556 -38.3264
2.46403 65.3907 -38.1716
32.213 -19.6279 19.6234
19.8661 -36.0023 29.6925
-1.39533 65.5548 -38.1431
-0.613762 65.8124 -38.0941
-3.94815 -5.88053 41.0572
20.4852 -36.2364 29.9842
-39.0596 -19.5884 19.7698
12.4523 35.3923 28.0043
0.448819 65.7809 -38.1006
1.50334 65.7101 -38.122
-23.6622 -25.2215 18.9296
-62.4322 66.2886 -38.1119
-26.8213 -19.2494 19.4889
23.634 -36.3747 30.0727
-23.4971 -35.7331 10.4027
-51.7473 66.8049 -38.035
-62.0824 67.55 -38.0008
24.612 -35.9505 29.7097
10.5074 12.9574 26.7968
-61.913 69.0047 -37.481
-22.9576 -35.5388 11.1944
-25.7889 8.57788 25.5832
-61.5004 69.9808 -37.9459
-61.3452 70.6892 -37.7956
19.5641 -35.8072 10.7577
-51.4211 70.5467 -38.0128
-61.221 71.394 -37.7761
58.3844 71.051 -37.8092
59.0605 70.7435 -37.749
-26.2821 43.7131 17.9473
-39.0765 -18.9219 19.5235
20.9861 -35.8684 29.9821
19.2436 -36.2168 11.5913
-60.9744 72.1872 -37.822
-38.4412 5.67438 7.70267
57.467 72.037 -37.798
61.6375 72.1102 -37.7543
-60.8783 72.7033 -37.5949
-50.5667 72.9819 -37.6885
-2.51148 66.2552 38.6909
-61.1285 73.484 -38.1563
15.7 -19.2971 19.6172
22.4082 -36.3182 30.2234
-6.96192 5.70403 7.30103
20.2284 -36.1231 11.0659
23.0437 -35.7173 29.9479
-61.0895 74.0047 -38.0873
-38.3672 -18.6491 19.9827
-50.3121 74.2046 -37.7588
-15.5314 35.8164 27.0596
57.3858 74.321 -38.1102
-60.5722 74.8247 -38.346
20.5014 -35.8054 10.7533
57.5269 74.782 -38.0641
23.6414 -35.5607 29.814
-60.1216 74.9891 -37.9516
13.8973 -37.9198 19.0174
-50.3055 76.0457 -38.1833
23.8615 -35.4878 11.316
-6.55871 6.04496 6.94419
58.3691 75.7722 -38.1265
-25.0259 8.4368 25.8655
-59.2858 76.4836 -38.1431
-15.2154 46.6008 34.8321
-27.5125 -19.0248 19.8409
-59.0084 76.974 -37.9409
-50.2938 76.9842 -38.4683
-58.0604 77.645 -38.1201
-50.507 77.134 -37.7328
26.4151 -35.5091 10.9998
13.0913 35.6293 27.0301
16.0956 -19.1576 19.9947
-40.3472 -35.148 11.1844
56.5129 77.4326 -37.9509
57.3354 77.4698 -37.993
-2.92858 5.60432 7.42377
18.7839 -35.3262 10.9704
-51.0308 77.9761 -37.9459
58.0897 78.2412 -38.0041
-57.5162 78.4725 -38.1119
-51.8114 78.522 -38.0299
-3.67179 2.385 29.0673
-26.18 44.4108 17.6639
9.71716 49.8217 35.9789
21.3065 -35.1766 11.0419
58.4623 78.6679 -38.0049
24.3338 -35.3816 10.9112
16.4646 -18.5771 19.3565
-52.4623 79.0032 -38.0199
3.92613 8.5119 27.6092
30.1922 -38.0522 18.7466
31.4192 -18.9759 20.1125
54.1776 79.5999 -37.9626
-14.8656 36.2103 27.8615
-56.7129 79.5937 -38.1431
-56.0741 79.7526 -38.1787
-54.08 79.681 -38.0317
27.1607 -35.2823 11.2254
54.0411 80.2121 -38.0784
-28.1023 -18.3923 19.7297
58.825 80.17 -37.7448
10.2 49.2969 35.5379
-2.79738 69.2192 37.7517
-22.8622 -35.0264 11.2292
53.7044 81.0739 -38.4859
53.8735 81.652 -38.2237
-1.93128 5.49115 7.09761
20.526 -34.5761 29.6687
10.6052 49.5439 35.7019
17.5028 -35.0485 11.2421
56.0797 82.4731 -38.0055
57.6326 82.0385 -37.5425
16.8625 -18.1101 19.1548
23.0237 43.9867 17.7263
18.322 -35.1365 11.0665
51.3176 85.3145 -37.9195
49.822 86.066 -38.0711
50.2782 85.629 -37.9303
30.8216 -18.1698 19.5402
21.343 -34.7205 10.7733
21.8832 -35.1224 11.2762
52.5118 85.9753 -38.0796
1.20358 0.923084 40.9452
52.3792 86.3791 -38.3352
12.717 36.5685 27.064
21.7421 -35.5057 29.9469
49.7243 86.7803 -37.3617
-39.5579 -19.5347 19.2807
22.4071 -34.7818 10.9888
22.5451 -35.3467 29.8883
51.8347 88.0714 -38.0687
-37.9145 -18.0842 20.0718
52.4006 87.6645 -37.9072
49.5003 87.9784 -37.76
52.0188 88.1881 -37.3644
50.6199 88.5618 -37.9035
-13.7621 9.12075 25.8388
3.06179 54.2047 -37.4197
3.79986 54.2414 -37.7143
-2.5989 54.6412 -37.527
-29.3056 -17.8704 19.7436
-1.43188 54.3483 -37.3697
1.21727 54.3912 -36.4607
1.89895 54.3564 -37.4817
2.67987 54.2977 -37.4302
4.17931 54.6702 -37.8219
23.45 -35.3772 11.4562
19.2052 -33.8025 29.0064
0.25244 -5.88454 41.5275
-28.8962 -17.6595 19.4679
4.09611 55.5401 -37.378
23.8968 -34.9038 10.9142
-5.94963 55.9567 -37.7143
-5.66505 55.6087 -37.5219
-5.26558 55.4621 -37.41
-4.74348 55.7735 -37.6186
24.566 -34.8764 10.6039
-4.39706 55.9085 -37.7143
-3.96824 55.8032 -37.7143
4.68704 55.9567 -37.7143
-6.11233 56.3855 -38.1349
-6.26124 56.4615 -37.6893
-1.39664 5.60699 7.34241
4.90804 56.3855 -37.7143
-0.601808 5.89155 7.63427
5.46576 56.6218 -37.7143
6.2819 56.935 -37.6867
-28.1394 -17.6957 19.3795
-12.7496 8.07997 25.1775
-6.40558 57.5712 -37.7093
-40.2884 -34.3613 11.1423
7.03831 57.5517 -37.6623
-6.62176 58.1198 -37.4766
17.0419 81.2719 18.1051
7.64078 58.1835 -37.1002
17.5381 -17.8788 19.736
-58.0125 58.4984 -37.6589
-6.95975 8.19248 25.463
-7.23458 58.5931 -37.6088
-58.8016 58.6133 -37.5012
-56.8915 58.6974 -37.455
0.269516 5.70979 7.46478
-7.48523 58.8481 -37.4383
-60.3295 59.3668 -37.3415
-15.625 37.0495 26.9565
-7.72152 59.3437 -37.285
-26.1276 44.8074 17.6032
30.3785 -17.5883 19.4114
-22.8315 -34.5277 11.0092
-37.5979 -17.1977 19.5184
33.1155 6.04454 7.52484
-62.0812 60.2034 -37.3448
17.3523 -34.5918 11.0261
-1.15483 1.67174 42.3073
-29.921 -17.2233 19.7624
-62.3886 60.8805 -37.7109
-53.4528 60.6675 -37.2039
21.9401 -34.2999 29.6063
-53.2027 61.0952 -37.1338
8.00892 61.0153 -37.0869
-38.3159 5.93182 7.97632
15.81 -40.1765 16.7626
-62.8298 62.3982 -37.5359
27.8435 -34.5487 10.7806
18.1502 -17.5335 19.9285
23.244 45.228 17.8373
-22.6219 -34.0825 11.504
-5.94537 6.04077 7.28494
5.08639 56.6926 38.9453
-26.2598 45.213 17.7271
-62.9222 63.6474 -37.5684
-52.5838 62.6737 -37.1958
-7.04781 63.1027 -36.6157
28.2519 -34.3677 11.0699
3.82458 63.465 -37.6339
29.5546 -17.1117 19.5764
-3.53942 63.4496 -37.7143
-40.1199 -33.7028 10.9008
-2.96072 63.6754 -37.7143
16.5772 -33.6964 11.1256
-37.3436 -16.5476 19.1557
4.45534 49.4924 37.4863
3.51072 64.3775 -37.7252
-2.30384 64.8926 -37.547
-62.5322 64.807 -37.2474
3.29844 65.1147 -37.522
12.1926 36.9556 27.6103
-5.57815 6.20477 6.93164
-26.7175 45.8657 17.5489
23.7537 45.8251 17.0158
22.9543 -34.2056 29.7607
2.87645 65.515 -37.5376
-51.6644 66.2601 -37.446
-1.86367 65.432 -37.6295
-1.28829 65.7422 -37.5953
-0.570356 65.957 -37.739
-30.5433 -16.7438 19.644
28.183 -34.0675 10.6862
-4.83233 6.16824 6.96018
2.25105 65.7593 -37.6074
0.133848 66.0243 -37.6798
18.7294 -17.2118 20.2642
-62.0835 66.9942 -37.4413
23.4546 -34.3403 29.7361
-22.3064 -33.4208 11.205
-62.0664 68.2117 -37.3965
-51.1616 70.0373 -37.507
23.9172 -34.3272 29.5867
28.4856 -16.9277 19.6635
-0.079436 5.91381 7.78533
10.1823 -1.50496 17.6032
5.45399 8.02752 25.362
29.064 -16.88 19.4805
-50.696 71.5574 -37.1049
57.843 71.2076 -37.5047
29.0917 -33.2963 11.2665
-36.487 -16.4 19.3471
61.2385 71.4579 -37.6841
-37.8459 7.16889 7.07006
-35.7008 -16.5136 19.6927
32.7987 6.31481 6.80721
61.9661 72.4891 -37.2939
-60.9435 73.382 -37.6853
57.1393 73.0337 -37.641
-31.516 -16.9867 20.0363
57.2163 73.675 -37.7505
61.9699 73.4053 -37.4723
61.869 74.1933 -37.755
-31.3668 -16.3394 19.6668
-60.3458 74.4473 -37.3663
-15.4239 37.6667 27.6067
-59.7828 75.3068 -37.7374
-50.3239 75.3273 -37.7044
57.9294 75.1945 -37.6364
-40.2125 -31.9314 11.4434
-59.4624 76.4225 -37.7253
-27.1091 46.6332 17.6091
58.927 75.9942 -37.8727
-0.863467 -0.586224 29.7887
60.9015 75.7148 -36.9685
-50.33 76.5445 -37.5605
-29.8557 -16.1109 19.2501
15.7141 81.7035 18.7233
-0.388575 -0.856535 30.078
56.9984 77.2146 -37.5455
14.9763 -32.1143 11.2121
32.015 7.84832 6.98018
23.9543 47.5506 17.7131
55.7418 77.4425 -37.3853
58.0919 77.825 -37.3807
26.9901 -16.332 19.6175
-2.6246 -0.942113 30.4279
-57.5705 78.2552 -37.7463
7.20377 8.75878 25.8282
-51.8977 78.1767 -37.356
7.65531 7.89701 25.3213
-57.1133 78.707 -37.4204
10.1828 49.9532 35.7637
28.4393 -33.5106 26.6219
-53.1213 78.9221 -37.4532
54.2867 79.1128 -37.7143
14.8798 -31.1161 10.9628
-56.3459 79.5303 -37.73
-8.01748 14.6234 29.0096
-37.6241 7.93203 8.34734
59.1646 79.5559 -37.1225
-36.8565 9.10163 7.40784
-55.1902 79.6188 -37.499
-54.5688 79.5675 -37.7143
-34.9021 -16.415 19.7819
53.8918 80.7857 -37.8516
-24.5478 67.8145 24.7956
53.9324 81.3352 -37.9143
54.2736 81.5413 -37.27
54.2724 81.8013 -37.7344
54.6019 81.8061 -37.0762
50.8813 85.1585 -37.5141
51.7388 85.3802 -37.9202
52.3484 85.4632 -37.8482
-28.545 -50.875 10.1132
-34.0464 -16.589 19.9971
12.3521 37.5175 27.4661
49.8718 86.4062 -37.4546
-34.0231 -15.7849 19.4869
53.3257 86.417 -37.4739
21.637 67.8456 24.8699
53.1942 86.8663 -37.5035
-33.1562 -16.0505 19.4973
30.9289 -31.0907 11.2103
52.8575 87.2604 -37.7143
31.3651 9.18507 7.44518
49.6723 87.6231 -37.282
-21.1805 -30.5763 11.379
50.2116 88.4442 -37.6054
-21.401 46.5033 28.4548
0.910689 -0.149367 30.0571
51.5592 88.3946 -37.2748
-3.26359 -0.38319 30.3089
3.05587 54.2757 -36.9877
-36.6294 9.26725 6.97025
-1.8665 54.3517 -36.8941
-0.570154 54.2853 -37.0181
3.57288 54.5428 -37.1014
-31.9901 -16.3428 19.7992
15.7094 -40.2745 17.3193
3.54574 55.4472 -36.6845
-36.5387 9.54718 7.58737
-4.69405 55.5063 -37.1651
-3.54662 55.703 -37.3051
-5.43337 48.5045 37.6826
-40.5018 -29.9394 11.6446
-5.95032 55.9567 -37.2855
-3.83969 55.8188 -37.1402
4.4738 56.1182 -37.2666
-6.00595 56.2569 -37.0498
5.03694 56.3855 -37.3999
-16.0179 38.2958 27.3475
14.7843 -30.3147 10.4544
5.99153 56.4127 -36.9471
11.0424 50.4328 35.8415
6.38322 56.7847 -37.1822
-15.6108 51.3086 35.8916
19.1879 -16.0848 19.3782
-6.2935 57.7225 -37.2244
7.00046 57.564 -37.2451
19.5933 -16.1482 19.5541
-3.15275 0.800726 29.4924
31.6297 -30.2416 11.1946
1.55449 0.728358 29.9855
-59.7125 58.9258 -36.8927
-59.3441 58.7769 -36.8785
-57.4958 58.6994 -36.8608
12.6273 38.0648 27.4427
25.9903 -16.1039 19.7252
2.53056 69.2372 37.6305
8.10496 59.6208 -36.8786
-61.655 59.8567 -37.2268
-61.001 59.659 -37.2855
-35.6735 10.3888 7.96497
-54.2807 59.765 -37.0667
31.7861 -29.8489 11.2171
26.9135 -16.0573 19.1674
-8.06949 59.8292 -36.5037
8.14901 60.5108 -36.9311
-62.5012 61.3534 -37.3018
-35.1739 -15.5664 19.2652
-4.13088 0.397112 30.4168
-7.93766 61.7868 -37.1621
-32.2821 -15.6659 19.3305
19.5389 -14.6713 19.3965
19.7118 -15.7028 19.4793
7.39901 62.028 -36.7635
-7.4384 62.3802 -37.4963
6.77445 62.45 -36.9438
-40.5559 -28.8028 11.1055
29.5077 -39.7263 17.272
16.3084 81.4914 18.7448
24.8957 -15.6448 19.7895
5.66551 62.7669 -36.8796
6.31254 62.5575 -37.1673
-3.80078 1.45562 29.6618
25.8197 -15.6137 19.4594
31.9663 -28.8588 11.191
4.09704 63.2566 -37.1921
4.65097 62.9828 -37.0949
-5.21459 63.7673 -36.2699
-3.56411 63.5737 -37.1197
1.77833 1.72207 29.698
-20.865 -28.384 11.7136
-51.9535 64.4238 -36.8629
-3.13829 63.7084 -37.1846
3.64177 64.108 -37.2582
-23.9991 68.259 24.9663
-2.66707 64.3344 -36.9374
3.57249 64.9381 -36.7589
-51.7476 64.9097 -36.5281
-4.18566 0.12746 45.5243
-23.251 -39.6152 17.4604
20.1397 -15.1583 19.6777
30.4419 10.1331 7.38701
-62.2883 65.9445 -37.1964
18.251 -50.8375 10.0504
-35.2775 10.6082 7.35549
-0.533107 66.0131 -36.903
-0.030911 66.12 -37.0494
1.51937 65.9551 -37.2509
-27.5403 48.1097 17.5184
-61.9993 67.6699 -36.7601
-51.1301 66.7477 -36.5528
-50.8544 68.788 -36.504
21.1941 68.632 24.8489
-61.4498 69.8795 -36.9437
-4.58453 2.35057 30.0052
-61.3587 70.2256 -37.2646
15.2334 -39.6298 17.4279
58.3027 70.5422 -37.2724
-40.7096 -27.6875 11.2049
58.9792 69.8492 -36.9648
4.24353 14.6218 28.7906
59.8276 70.5155 -37.5244
59.7001 70.1366 -37.2509
60.5938 70.4545 -37.2834
29.6887 11.2268 7.04629
-61.225 71.5022 -37.2709
13.7167 38.2827 27.7211
61.0204 71.0513 -37.5209
2.4702 2.08407 30.2347
2.32991 2.60357 29.7571
57.1723 71.623 -37.1418
61.699 71.6353 -37.313
-34.8001 11.9499 8.52661
-60.8409 72.5292 -37.0376
32.7831 -27.4951 11.1807
-60.6259 73.718 -37.2446
20.5211 -13.5368 19.7764
56.8696 73.5382 -37.2855
-4.66183 3.222 29.6407
24.7134 -14.0017 19.7237
57.0604 74.316 -37.303
61.9203 74.1665 -36.8707
-50.1535 74.2251 -36.8031
-60.1165 74.6256 -37.0142
-50.2595 74.8446 -37.3496
25.5401 -13.992 19.4057
-40.9182 -27.24 11.2735
20.0248 -13.3479 19.5546
61.453 75.1416 -36.8116
1.60872 -2.21276 43.3545
-50.3717 75.237 -36.9403
57.3528 74.8831 -37.2855
57.7547 75.1236 -37.2415
-59.5873 76.1069 -37.0281
-50.5928 75.8246 -37.0911
-50.6166 76.1242 -36.898
58.9647 75.8512 -36.9756
58.3821 75.7116 -37.3258
59.7784 75.9652 -36.9607
-11.2852 61.3278 37.2815
-20.7757 -27.2412 11.3566
60.3992 75.9012 -36.8889
-59.2198 76.8231 -37.3253
-50.5155 76.9688 -37.2855
2.85397 3.54069 29.7209
-58.6201 77.4371 -36.9501
-6.61434 -5.15405 52.6668
-1.39579 47.1328 35.2273
56.4951 76.9794 -37.2855
57.8698 77.4066 -37.3299
-5.71211 3.80784 30.2783
-57.9361 78.0938 -37.1955
55.2087 77.8264 -37.3275
-32.7995 12.9174 6.80704
-20.7819 -26.653 11.3088
-4.3045 68.7629 37.2838
58.7408 77.9879 -36.9157
-5.87807 -1.85536 44.4431
25.383 -12.8069 19.5246
15.366 -31.6287 25.7222
-52.1094 78.0997 -37.0131
54.5451 78.6769 -37.1802
-56.2973 79.1129 -37.2793
3.05151 3.51164 30.195
13.0961 -26.3412 10.9977
28.74 12.4306 7.00662
-54.3748 79.2765 -37.2342
32.998 -26.6584 11.2287
59.1743 79.0658 -37.0747
-5.68972 4.28562 29.7227
24.453 -12.5803 19.8264
-55.4495 79.4528 -37.2784
-41.5875 -26.3863 11.5814
54.3045 79.5802 -37.0176
54.311 80.5383 -37.1873
59.1102 80.1365 -36.8755
20.0197 -12.6585 19.4022
-27.2075 48.3678 16.6574
58.8238 80.8605 -36.7302
14.9551 -39.221 17.5515
56.3084 82.2732 -37.011
56.9335 82.2922 -36.7207
57.4061 82.1991 -37.2126
51.3269 84.8022 -37.1579
51.7438 84.6807 -37.1739
52.8003 84.8412 -37.1417
50.4383 85.478 -37.2487
53.3315 85.5484 -37.3484
19.9269 -11.8356 19.2737
53.1247 85.9766 -37.6263
3.20066 4.07239 30.3007
-23.6669 68.8219 24.8934
-5.83834 4.26662 30.2921
21.499 -12.7393 19.9255
3.23393 4.82072 29.7722
-32.2412 13.5605 7.44836
21.6797 68.1608 24.4777
24.5592 -11.7634 19.7005
-6.8629 15.6343 29.5105
53.1813 87.3203 -37.1152
-20.6953 -25.7835 11.1233
14.9025 38.5247 27.3283
52.7453 87.7819 -37.026
29.6414 -39.1863 17.2316
12.7694 -25.6004 11.3513
-1.39709 54.0179 -36.6419
-0.950589 54.0274 -36.5456
28.1771 13.3661 7.53291
-5.79992 4.87498 29.5363
3.15011 5.6163 30.2027
0.162941 54.3874 -36.8011
0.785803 54.4395 -36.1787
1.62466 54.2975 -36.4979
2.36605 54.3148 -36.4154
2.46403 54.3144 -36.8567
32.985 -25.5728 11.1526
20.5066 -11.4487 19.4976
-5.77395 55.5278 -36.8567
-5.25469 55.2631 -36.8567
-4.81338 55.2291 -36.507
-5.56625 6.44052 30.1713
3.40257 5.2626 29.142
-2.85024 55.4581 -36.5391
21.2652 -11.3806 19.6657
-5.87352 55.9623 -36.8164
-3.90041 55.7792 -36.7555
3.63137 55.936 -36.2132
4.60812 56.1866 -36.8567
4.90938 56.1856 -36.6722
5.46776 56.3345 -37.0155
-6.16491 57.2978 -37.1984
6.63106 57.273 -36.6461
-6.30129 58.1764 -36.8363
-31.0414 13.8648 6.92565
-41.8802 -25.0229 11.4544
-7.00815 58.4991 -36.7646
7.81457 58.6256 -36.3952
3.32746 6.36251 29.3693
-58.8116 58.824 -36.5819
-56.603 58.7935 -36.9042
12.7591 -25.2241 11.4227
-55.4672 58.9502 -36.4771
32.9827 -25.5174 11.5905
-5.64427 7.40013 30.0208
2.90554 6.97513 30.8104
-61.4153 59.816 -36.8567
-60.414 59.5692 -36.7964
3.29818 7.50798 29.44
-5.52566 7.65267 30.2739
-53.7111 60.2449 -37.0869
24.3554 48.2207 17.0336
-8.14717 60.4471 -36.6871
-62.0123 60.3724 -36.7502
2.91817 8.11075 30.376
-5.34165 8.37077 30.1132
33.328 -24.542 11.4855
-8.33357 61.1195 -36.0961
-39.4889 -38.8005 16.9492
-62.1639 61.206 -36.6036
15.4454 38.6094 27.4674
-23.3349 69.4613 24.4709
14.3111 38.789 28.6139
23.1396 -11.7033 19.9451
-62.2074 62.1165 -36.5476
-7.83272 62.3751 -36.6913
24.3649 49.3451 17.616
-62.6573 62.9573 -37.0182
0.314964 69.244 37.8584
-7.41412 62.9363 -36.3949
2.87774 8.79086 30.2755
-62.3929 63.359 -36.4863
-52.0789 63.5899 -36.5106
20.1458 -10.8788 19.5451
26.9269 13.8997 7.18989
-27.8999 49.3675 17.9106
-6.30656 63.5595 -36.4063
-5.74301 63.6855 -36.4199
27.669 13.5789 7.20767
4.05689 63.6772 -36.3024
-5.28947 8.99347 29.9766
-62.4022 64.125 -36.5662
21.9702 -10.9501 19.7105
-62.4544 64.6108 -36.626
-20.8217 -23.7284 11.1402
16.2348 38.7436 27.4785
-62.456 65.1072 -36.9123
-2.30898 65.1512 -36.943
3.24843 65.3899 -36.0372
22.6151 -10.9556 19.7238
-1.84678 65.6361 -36.4886
